# .PCD v0.7 - Point Cloud Data file format
VERSION 0.7
FIELDS x y z
SIZE 4 4 4
TYPE F F F
COUNT 1 1 1
WIDTH 1486
HEIGHT 1
VIEWPOINT 0 0 0 1 0 0 0
POINTS 1486
DATA ascii
40.474365 -87.841293 -643.37213
-12.452638 -87.51696 -643.1004
-29.40591 -85.716217 -643.26312
-18.088615 -85.162468 -642.38696
-20.27961 -84.252861 -642.71729
-13.086162 -83.570091 -643.23969
-23.961401 -83.376236 -643.02106
-22.313845 -83.723679 -642.54291
-11.716182 -83.499649 -642.92023
-47.017262 -80.799309 -643.08258
45.381447 -79.269104 -642.42969
48.76371 -74.497589 -640.98682
50.16193 -67.983284 -643.23694
-46.266075 -58.848831 -641.71942
-13.408765 -55.417461 -643.07825
-12.681754 -55.305527 -642.76483
-8.0936289 -55.293686 -642.72296
-23.006464 -55.027874 -642.99762
-22.246389 -55.297398 -643.14862
-7.1674762 -54.917961 -642.59381
56.860523 -54.779194 -641.09229
-10.338037 -54.318176 -642.75232
-25.642603 -53.413818 -642.88739
-20.661697 -54.333328 -642.6861
-28.554081 -52.463993 -643.03326
-25.986979 -52.662464 -642.35785
-18.21282 -52.730202 -642.80841
-15.668012 -53.121525 -643.63727
-29.256857 -51.732548 -642.33832
-17.035231 -51.735931 -642.4649
-31.103275 -49.93182 -641.96674
-46.437733 -49.617905 -642.84222
57.182098 -49.188187 -642.59045
0.48125976 -48.141376 -641.95642
-32.032459 -47.369808 -643.01428
-32.585487 -46.019676 -642.87781
59.919315 -45.243473 -641.50397
-36.776623 -38.704964 -643.76697
54.047523 -37.673199 -643.24579
-46.887737 -36.24675 -643.13782
52.415264 -35.706764 -643.245
-40.474495 -35.776306 -643.13306
24.704332 -30.084143 -642.02612
37.619453 -29.299627 -643.4303
18.957729 -110.71381 -642.63196
18.28204 -110.98988 -641.73926
20.413254 -110.86405 -642.19696
27.21965 -110.32576 -642.46765
22.441174 -110.38391 -641.72064
28.939718 -108.45632 -642.62244
29.845913 -109.35062 -642.10596
24.330809 -109.37523 -642.35736
31.149641 -106.95297 -642.19849
32.07114 -104.84619 -642.04816
34.854263 -99.203453 -642.01593
-45.208321 -96.151344 -641.75531
36.339996 -95.062614 -641.84558
35.378471 -93.826431 -642.19525
-37.414585 -92.951515 -642.57947
37.580837 -92.478233 -641.29523
-34.812454 -91.354126 -643.35785
-45.875904 -90.257675 -641.59753
-10.180023 -89.738724 -642.25409
-3.5030746 -90.467499 -641.58264
-32.88726 -88.621956 -643.46912
-13.723211 -87.447891 -642.53973
-11.00397 -88.2062 -642.69177
-6.5726118 -87.303551 -642.47333
-10.602427 -86.737938 -641.97131
-47.073647 -86.672592 -642.8891
-47.105789 -84.506699 -643.34094
-12.08731 -85.103836 -642.62604
-9.7967663 -84.623161 -642.42596
-10.806953 -84.680901 -642.198
-23.765135 -84.334091 -641.19989
-45.777176 -79.859436 -642.48438
-46.300331 -79.655251 -642.66064
-46.120071 -79.360558 -642.65338
51.467026 -68.425499 -640.98517
-46.120506 -65.703842 -641.79639
52.243111 -58.657558 -643.09235
-11.501649 -54.585419 -642.30396
-20.769169 -53.946621 -642.17566
-7.2630324 -54.289719 -642.06201
-12.379145 -54.120838 -642.28485
-24.147001 -52.712723 -642.25696
-22.021124 -53.002464 -641.92902
-19.198284 -52.852234 -641.41742
-6.0878096 -53.318466 -641.64374
-27.609999 -52.278545 -642.28967
-15.670242 -50.301144 -641.60059
-14.300773 -51.987953 -642.74609
57.640652 -43.35984 -642.63782
-34.060261 -43.331219 -641.94171
-35.208447 -40.868145 -641.60773
57.344021 -41.606037 -642.51733
-35.515362 -40.238285 -642.88513
-46.816254 -40.719467 -641.44275
-46.726688 -36.995697 -643.76117
54.943081 -34.363899 -640.98206
45.851746 -29.596678 -641.59308
31.105263 -28.492702 -642.13568
41.675045 -29.212025 -642.45959
35.961044 -28.439613 -642.47766
25.76545 -111.86396 -641.77344
24.889826 -110.94601 -642.19025
28.170265 -110.97993 -641.78461
23.037569 -110.70458 -641.57233
23.432743 -109.56136 -642.11823
31.994087 -109.21562 -641.73541
33.582226 -104.82021 -641.53333
34.584259 -102.85053 -641.37128
8.944088 -103.01522 -641.93512
7.2315083 -101.14652 -642.13745
4.1552081 -97.749245 -642.85364
-44.235085 -96.689667 -642.44946
-40.812962 -96.665436 -642.07202
1.4311315 -96.371651 -640.98633
36.950668 -96.556656 -641.33319
34.032215 -95.297592 -642.97174
36.087967 -93.227943 -641.86847
-36.753788 -92.62085 -641.46655
39.130539 -91.437248 -641.24597
-8.3508492 -91.715553 -641.63727
-34.185562 -90.08873 -642.35785
-9.2595234 -90.111618 -642.14203
41.306248 -89.051704 -641.703
-11.622479 -89.237137 -641.73364
-8.625906 -88.734444 -641.34729
-15.308955 -86.75753 -641.83478
-8.142148 -86.516068 -641.76184
43.154037 -84.843475 -642.09222
-29.556355 -86.063942 -641.08588
-9.9296484 -86.160965 -641.75122
-9.3602285 -85.571297 -641.85205
-19.943699 -84.617851 -642.15234
-18.370518 -85.50174 -641.74219
-26.16172 -83.993965 -642.17535
-24.635876 -84.124168 -641.46027
-47.229446 -81.153831 -641.05981
-45.847778 -79.937416 -641.75787
47.233418 -74.542191 -642.93439
-45.752903 -76.875717 -641.5022
-45.938637 -74.172592 -641.29535
-46.06295 -62.625717 -642.5766
52.038364 -61.847801 -641.37329
-8.3250742 -52.872643 -641.95752
-11.614889 -53.602016 -641.82751
-9.281538 -53.11821 -642.24457
-13.222987 -51.982647 -642.47156
-12.966997 -49.500542 -640.88721
-12.779086 -50.650116 -641.81763
58.688541 -50.789768 -641.21997
-1.3940377 -50.213898 -642.34235
59.334648 -47.176777 -641.6106
-32.901325 -45.598911 -642.05328
6.9448071 -41.984322 -642.10022
57.00782 -39.145947 -642.14178
56.80938 -36.262459 -641.09546
-41.082256 -35.163124 -641.72461
-46.367844 -34.625172 -641.10657
-43.504116 -33.772312 -642.69684
48.908913 -31.939636 -642.50629
39.413486 -28.262093 -641.76801
28.473629 -112.71928 -641.02765
30.361197 -111.38444 -641.46887
18.655489 -111.43315 -640.52582
31.895868 -110.49289 -641.1366
13.967854 -108.50593 -642.79315
32.884861 -107.26547 -641.61969
12.53131 -107.27244 -642.40131
33.369198 -107.559 -641.27679
-39.251011 -95.278893 -641.30157
37.390461 -94.542892 -641.30682
-7.7975879 -92.896057 -641.10968
-45.268127 -92.875717 -641.34021
-7.5637836 -92.50502 -641.3454
-45.483475 -91.142998 -640.91663
-7.6877818 -91.464981 -641.4801
-9.1468372 -91.552582 -641.30048
40.200039 -90.731003 -640.92267
-45.513809 -90.384277 -641.4472
-46.908279 -89.990326 -642.73267
-10.674372 -90.121216 -641.60242
-9.0501766 -89.716743 -641.95764
-31.80813 -87.836258 -641.24738
-13.054837 -88.679657 -640.71759
-7.1827292 -88.033058 -641.43329
-16.491987 -86.323143 -641.67865
-8.9003754 -86.644104 -641.46619
-18.230047 -86.590919 -640.84235
-27.230825 -84.649666 -641.28528
-22.001438 -84.846756 -641.12531
-46.362617 -79.902252 -641.0509
-46.104809 -79.37648 -641.23199
49.449451 -71.119583 -642.44446
-46.33989 -61.266342 -640.05469
51.402229 -60.289207 -642.25623
-10.733626 -53.363434 -641.55066
-6.7953439 -52.943703 -641.32544
-26.987646 -52.407509 -641.58209
-25.788782 -52.477966 -641.64337
-24.822645 -52.345966 -641.56818
-21.660889 -52.123341 -641.28577
-10.696517 -51.477539 -640.99609
-29.134291 -51.831409 -641.49347
-22.664509 -51.793797 -640.79193
-23.297049 -52.11491 -641.55957
-9.6922569 -51.61747 -640.76056
-7.7348623 -51.485798 -641.16907
-30.074278 -51.226196 -641.27698
-11.802165 -50.633308 -641.44293
-17.135551 -51.182301 -641.67084
-31.65514 -48.743473 -641.44696
-32.298893 -47.250584 -642.21814
59.990353 -43.735092 -641.42529
-34.454727 -42.157188 -641.04553
-36.727345 -38.810108 -641.41064
-47.078701 -35.368675 -640.53198
-41.04501 -35.233601 -641.01727
-42.052475 -33.949966 -641.55676
16.255285 -34.765053 -642.84747
51.805653 -31.937706 -641.01672
49.120842 -29.837563 -640.46063
21.52446 -31.198071 -641.87463
30.818142 -27.615496 -640.59113
26.68189 -113.54404 -640.60175
23.795866 -112.78244 -640.89337
19.346453 -111.34767 -641.54816
21.677444 -111.61208 -640.61047
32.599838 -109.28515 -641.26196
10.024635 -104.17509 -641.21088
-40.386208 -97.065147 -639.77594
-37.845634 -94.357979 -641.28314
-6.6328702 -93.427048 -640.67407
38.247246 -93.501381 -640.77661
-6.6932993 -92.660484 -640.84833
-2.4683409 -91.748116 -641.38812
-35.15955 -91.699821 -641.17377
-8.8131266 -92.127937 -640.52155
-10.158425 -90.876816 -640.4519
-7.0726461 -90.511902 -640.73297
-4.894299 -89.735672 -641.6037
-46.906841 -90.099625 -641.19873
-33.739361 -89.484703 -641.99457
-11.471662 -90.015549 -640.20154
-6.2543511 -89.77034 -640.90668
42.012562 -90.148338 -640.4165
-7.5512838 -88.472321 -641.09076
-13.837399 -88.261116 -640.86047
42.583584 -88.424309 -640.9823
-47.264385 -87.989845 -640.69922
-20.021685 -85.748863 -641.10107
-47.393715 -84.167824 -640.51575
-45.807285 -78.381874 -642.37988
-46.21949 -70.610092 -638.98285
-46.022675 -70.505707 -641.36572
52.552109 -63.354801 -640.35809
52.375408 -61.206535 -641.10071
53.313179 -60.62764 -640.85242
54.442024 -59.07687 -641.24335
-18.702938 -52.405815 -641.2074
-18.490622 -51.702328 -640.5506
-5.1859264 -51.666523 -640.4704
-21.435896 -51.53054 -640.58533
-8.3970375 -51.405781 -641.18927
-3.2661393 -51.571842 -641.87933
-11.144073 -49.622528 -640.88885
-12.02647 -49.707512 -641.14545
-14.528605 -49.072842 -640.82361
3.4649971 -45.292919 -642.31287
-32.901085 -44.959984 -640.87958
4.5337701 -42.622562 -640.13434
7.4042935 -40.313869 -640.49841
59.741772 -40.990139 -641.18311
9.7387152 -39.338161 -642.09058
59.45229 -37.909985 -640.41669
10.593121 -37.06995 -640.08887
12.787579 -36.372818 -641.60944
-40.233624 -35.828808 -642.14355
-46.809044 -34.907791 -641.65863
-41.690662 -34.688412 -640.37695
-43.395187 -33.762604 -640.43604
14.966297 -33.747681 -640.39459
18.94392 -32.403557 -641.83893
36.25597 -27.252317 -640.63733
41.940212 -26.655697 -638.89197
25.522718 -114.13673 -639.89307
29.285786 -113.20066 -640.00519
20.723568 -112.07259 -639.7934
34.53912 -104.50065 -641.09875
8.5403023 -102.77782 -640.66608
2.8141999 -98.761658 -639.28308
35.820072 -101.20432 -641.05231
38.314766 -97.680611 -640.12573
-43.761272 -97.294312 -640.88672
-40.849258 -97.63308 -639.70532
-0.50620151 -94.813622 -640.29865
-6.974658 -93.706841 -640.42908
-6.324235 -94.131851 -640.1535
-8.133213 -93.037399 -640.45996
-36.105022 -92.438011 -640.58289
-35.441055 -91.9505 -640.1347
-6.3475351 -91.859077 -640.43237
39.226665 -92.096184 -640.72034
-3.036612 -92.336761 -640.11029
-3.9419973 -91.536819 -640.52441
-5.7971044 -91.122902 -640.41583
42.550091 -89.667946 -640.29095
-47.436424 -82.49192 -640.90491
-45.921398 -79.105072 -639.98663
-45.914845 -78.511131 -639.14728
52.704967 -62.751522 -640.24115
-46.48291 -53.375717 -641.43597
-28.091976 -52.763531 -640.10211
-25.62908 -52.991341 -639.93805
-6.1310806 -52.165791 -640.67932
-20.258322 -51.576267 -640.62244
-17.446852 -51.004864 -640.4704
-8.864439 -50.525841 -640.27991
-4.1191573 -50.42902 -639.7514
-16.558285 -50.09129 -639.70026
-9.5133181 -50.38467 -640.20514
-15.949663 -49.845421 -640.90411
60.085251 -49.294979 -640.72632
-13.718423 -48.274185 -640.21161
-11.653553 -48.358585 -640.13916
-31.877066 -47.232948 -640.14294
-46.753616 -43.297592 -641.57562
-35.746632 -39.693802 -640.08905
-37.22662 -38.003258 -641.17462
46.83131 -28.826708 -640.39691
43.30262 -27.490797 -639.87982
33.230885 -27.163033 -640.36066
22.70583 -113.2998 -640.03961
30.829309 -111.89009 -640.75879
34.456284 -107.8521 -640.0379
11.734933 -105.86505 -640.54895
34.99744 -105.73321 -640.38324
11.076094 -105.07154 -639.35333
9.9934797 -104.14972 -639.88055
37.385971 -103.35382 -639.43854
5.2689786 -99.626297 -641.47858
2.2804592 -97.656807 -640.33014
-6.9208403 -94.24704 -639.58997
-4.676352 -93.07048 -639.72437
-5.6099687 -92.126999 -640.11346
40.76548 -91.838379 -640.18323
-9.8087044 -91.433899 -639.38586
-10.767485 -90.711182 -639.68463
-45.801098 -89.724091 -640.34155
-47.276882 -88.79863 -639.61371
44.631935 -84.967636 -640.2146
-28.557144 -85.327705 -639.03394
52.650921 -66.808861 -639.52039
-46.46043 -62.516052 -638.14301
55.100842 -60.876854 -639.32031
55.93578 -58.33807 -640.46973
-28.937479 -52.68684 -639.02783
-23.390574 -52.020924 -640.11908
-46.69545 -50.922028 -640.04974
-20.842297 -50.959896 -639.63525
61.410957 -50.662941 -639.57611
-19.538847 -50.735268 -639.89227
-5.8270769 -50.808388 -639.85999
-8.4260263 -49.492832 -639.75482
-3.8370683 -49.563549 -638.78625
-10.772248 -48.783154 -640.5235
-7.2679224 -49.804752 -640.2334
-14.272051 -48.137554 -639.87543
-10.359183 -47.627758 -640.04474
-32.093613 -45.037365 -639.3576
63.411053 -45.606339 -639.66315
-34.519787 -41.047298 -639.90234
62.296215 -40.572151 -639.85175
-37.171902 -38.336281 -639.47339
62.511707 -38.76252 -639.12006
-38.19566 -36.193027 -639.5661
-39.15617 -35.582314 -640.60388
-38.456741 -35.908428 -640.58063
-42.877167 -33.908661 -639.38391
58.553333 -35.008114 -639.35968
-45.114666 -34.485977 -641.23193
17.077045 -32.052841 -639.84393
50.627647 -29.641846 -639.47571
19.496588 -30.425072 -639.20374
23.082697 -28.903023 -639.17188
25.343536 -28.009144 -638.93286
28.339569 -28.615681 -641.41858
26.515938 -114.47812 -639.04242
21.812336 -113.30929 -639.07965
23.565271 -113.90395 -639.45422
19.939384 -112.0163 -639.61066
17.366415 -110.66533 -640.15564
35.40086 -108.29556 -639.16821
35.591831 -106.93114 -639.55725
7.098762 -101.75741 -640.27753
40.169743 -100.38704 -638.00592
-43.53476 -98.434319 -638.25635
-45.336304 -97.025177 -639.63855
38.686111 -95.7714 -640.16394
-38.298008 -94.924736 -640.56677
-45.316986 -96.23069 -640.25012
-5.4743552 -94.025284 -639.67871
-4.3380976 -94.090981 -638.86353
-37.279346 -93.476341 -639.62189
-8.1412001 -93.075706 -639.28485
39.552448 -93.195236 -639.87708
-36.717346 -92.823723 -637.56866
-3.4118755 -92.967911 -639.4314
-36.831646 -92.70694 -639.92529
-45.781387 -89.944283 -638.43842
-33.761421 -89.659904 -639.68292
-45.608356 -89.914459 -639.96527
-13.763243 -89.71283 -639.6123
-46.994465 -89.369926 -639.61072
-45.790874 -88.998749 -638.96637
-15.978642 -88.055573 -640.28369
-16.928425 -88.017265 -639.19348
-20.211262 -86.045319 -639.68713
-47.344086 -83.086121 -638.93469
-47.289875 -82.075188 -639.6908
47.441757 -81.110092 -638.48285
-46.099453 -80.225151 -639.5603
50.418076 -71.799591 -640.48853
53.249573 -63.29718 -639.23035
53.522514 -62.183567 -640.05023
58.011642 -57.146816 -639.28857
-46.557617 -54.610092 -640.48285
59.927856 -55.310093 -638.59552
-26.653366 -53.002319 -640.16718
-20.143095 -50.255867 -638.73383
-17.270046 -50.377945 -639.58588
-46.726357 -47.969467 -640.69812
-18.542849 -49.819447 -639.14783
-6.4443507 -48.196335 -639.22345
-30.876591 -49.878319 -639.45203
-8.6715527 -48.427834 -639.44293
-9.8765459 -46.098888 -639.19232
62.075657 -46.674458 -640.19855
-9.4685946 -46.892971 -639.50757
1.2540922 -45.43803 -639.40228
-33.041893 -43.003933 -639.66138
63.553741 -43.426285 -639.61041
8.6532097 -38.121918 -639.05927
12.542958 -34.719765 -639.12903
-41.322166 -34.862419 -639.83893
25.14312 -114.57412 -639.10089
29.903252 -113.57504 -638.41968
19.803627 -112.13001 -638.59601
32.689999 -111.71678 -638.9082
33.753876 -110.2496 -639.15857
14.679236 -108.3438 -639.1731
13.41752 -107.05171 -638.32739
37.440639 -105.8249 -638.81226
5.4222989 -101.26091 -638.40796
39.164661 -100.43073 -638.82495
-44.81382 -97.420479 -639.72296
-6.4326229 -94.859726 -638.65771
-5.3810925 -95.021111 -638.58282
38.813469 -93.861092 -640.23572
40.827995 -93.819695 -638.17224
-9.2199059 -92.658081 -638.29608
-45.508392 -91.610092 -639.48285
-11.256354 -91.650711 -638.36304
-12.728929 -90.535225 -639.22009
42.412891 -90.992676 -639.22284
-47.019707 -88.49894 -638.78827
-47.319248 -87.298233 -638.35602
43.957672 -88.846214 -639.06531
-18.595144 -86.825874 -640.07104
-20.483568 -86.164604 -638.05658
-47.50174 -86.163734 -638.59918
-27.805851 -85.033455 -639.70276
-25.23451 -84.551384 -639.21649
-47.485802 -83.922539 -638.90021
-46.182022 -81.494957 -638.50604
47.576492 -78.015488 -640.28839
52.681259 -68.839729 -638.29095
53.522514 -64.720345 -638.2262
-26.235844 -53.128029 -638.32233
-29.911663 -51.645786 -639.18817
-4.9817705 -50.170795 -639.1153
-15.952191 -49.006271 -638.5816
-5.8962779 -46.950138 -638.49158
-15.100198 -47.978649 -637.94507
-7.5929837 -48.396626 -639.2511
-14.630767 -48.116287 -639.33026
-7.4435434 -46.945202 -638.48969
-1.1540805 -47.966824 -639.38507
-31.141073 -46.783508 -637.62317
-12.740679 -46.79422 -639.11554
-31.678314 -45.001408 -638.24518
-9.0575228 -45.334751 -638.77167
-46.955872 -45.711655 -639.02972
2.2317452 -43.849876 -638.66534
64.970207 -42.272285 -638.79755
-33.554012 -42.089939 -638.39563
-47.09478 -40.723373 -638.81879
-47.204529 -36.657509 -639.56927
57.850147 -32.74609 -638.07898
56.062641 -33.210686 -639.56421
53.985596 -31.270817 -639.13568
45.958 -27.281801 -638.65869
33.450951 -111.86086 -638.21985
16.886475 -110.16046 -639.06311
34.487709 -110.84109 -638.39777
36.407707 -110.31091 -638.30243
15.280836 -108.47245 -637.42456
38.585003 -106.83702 -637.93304
10.945161 -105.27086 -637.99304
-41.740238 -98.026421 -639.39825
-0.15865548 -96.344688 -638.54614
-45.497543 -95.696198 -638.30164
-2.8119185 -93.406113 -639.01233
-2.1161222 -93.331505 -639.72418
40.871979 -93.224838 -638.39886
-35.829189 -92.006508 -637.95837
41.795467 -92.849243 -637.53583
-14.666461 -89.562943 -638.70081
-45.944603 -88.280525 -638.31714
45.836922 -85.857216 -637.99841
-30.928082 -86.867569 -639.29077
-30.064659 -85.823982 -637.44037
-25.947834 -84.496933 -639.80725
-23.299046 -84.988144 -638.81885
-47.228214 -83.897255 -638.2796
45.931988 -81.694199 -640.26825
-45.932877 -80.632393 -638.39496
-46.272079 -72.955818 -638.05304
-46.334137 -66.461411 -639.57581
53.960785 -63.865444 -637.81671
54.762943 -62.816628 -638.44745
55.507374 -61.875729 -638.57581
-46.742336 -53.465996 -638.6051
60.339268 -52.838966 -639.38409
-27.928471 -53.170418 -638.32196
-22.186388 -51.5284 -638.96289
-18.042028 -49.082912 -638.44379
-31.044434 -48.652992 -638.59125
-13.628089 -46.634739 -638.41193
-12.907062 -45.72554 -637.89819
-11.53808 -45.216942 -637.88647
-0.93100613 -46.592602 -637.61902
-9.480072 -44.90876 -638.49908
-34.320763 -40.983555 -638.99005
65.231445 -39.923664 -638.16443
-47.458736 -36.610092 -637.23285
-37.730667 -37.695511 -637.99213
-39.683327 -34.906414 -638.59259
-46.159813 -34.397148 -638.797
-40.609131 -34.515747 -637.68103
15.113255 -31.862299 -637.58905
28.229118 -26.208963 -636.74072
29.069033 -27.531384 -639.75586
38.855404 -25.569349 -637.21472
33.984543 -112.64776 -637.81677
31.385197 -113.14201 -638.08966
35.001244 -114.28333 -637.89935
21.409689 -113.22929 -637.94855
32.930603 -113.29604 -637.4079
35.563316 -111.95961 -638.15417
37.042564 -111.62025 -637.88452
37.716805 -109.35489 -637.84412
9.1705856 -103.7048 -639.14441
6.5297165 -103.01859 -636.67566
40.010311 -103.7925 -637.67487
0.93988717 -97.867966 -637.68982
-45.562553 -97.202347 -637.82147
-39.685524 -95.703011 -638.94519
-8.0161276 -93.801392 -637.8916
-10.218624 -92.449272 -637.30664
42.966324 -91.279335 -637.39655
-46.060658 -87.189308 -637.75751
-46.121281 -86.084251 -637.33704
-24.705349 -85.354225 -637.71539
-47.487728 -85.896347 -638.16882
-46.071404 -82.773407 -637.56561
-45.953304 -80.829178 -637.5448
48.626049 -80.939941 -636.57129
-46.073494 -77.155754 -638.64905
52.039024 -71.363007 -637.84167
-46.633823 -55.328842 -639.0141
-24.484623 -52.655807 -638.4118
-29.304058 -51.955273 -637.9527
64.839119 -48.573078 -638.33228
-4.0965734 -49.121231 -638.12958
-5.3394957 -45.279766 -637.47382
-11.036592 -46.415829 -638.82806
-10.312626 -44.398769 -637.40759
-7.011024 -45.655849 -637.78558
66.562881 -44.504162 -638.14923
-8.4937859 -43.356991 -637.4245
-32.53981 -43.403496 -638.27271
4.9204545 -41.161858 -638.41754
-35.863358 -39.675972 -638.23248
-38.744896 -35.602013 -637.83795
61.405006 -36.934063 -638.87311
64.201828 -37.744228 -637.79724
-47.305054 -35.289879 -638.89954
-47.177673 -34.90995 -637.33716
11.161674 -34.785664 -637.23126
-44.087517 -33.9739 -638.42834
20.054461 -29.251379 -637.6004
49.720837 -27.76576 -637.47864
33.395935 -115.63576 -637.21564
34.418636 -115.47398 -637.40991
34.039406 -114.79254 -637.67828
35.701065 -115.04549 -637.08203
37.188072 -113.56844 -637.07635
39.1721 -109.2121 -637.25354
13.797267 -107.39203 -637.28528
12.535412 -106.394 -637.56274
-44.21373 -98.848137 -636.78961
-42.609531 -98.828735 -636.92236
-45.410885 -97.910812 -637.6825
-40.274796 -97.667381 -636.96143
-45.731342 -95.219772 -636.47504
-39.519085 -95.762764 -636.85132
-38.271606 -94.932198 -637.75214
-1.8229887 -94.630867 -638.01312
-6.5572391 -94.928574 -637.1817
-5.6948538 -95.227348 -636.95001
43.12809 -91.945656 -636.48718
-14.192994 -89.942856 -637.651
-16.369905 -88.506676 -636.95532
44.968796 -88.189964 -637.94067
-33.43922 -89.22892 -637.76184
-19.959097 -86.774696 -637.33356
-22.45598 -86.049423 -637.4563
-27.313786 -84.995758 -638.02301
53.386902 -69.3395 -636.06305
-46.538685 -66.591202 -637.8692
-46.667625 -64.793358 -636.5274
-46.68541 -59.51852 -637.42578
58.16362 -60.300789 -637.45184
-46.776066 -56.113365 -637.31177
-24.816387 -52.568283 -637.19305
-28.557571 -52.128647 -637.1944
-23.356058 -51.861397 -636.59119
63.132702 -52.59203 -637.86938
-30.294258 -50.374519 -636.97913
66.934052 -51.566425 -636.20447
-18.370918 -48.788864 -637.59906
-17.155956 -48.17057 -637.51807
-4.5775943 -48.550232 -637.95966
-3.509764 -47.114315 -636.35822
66.456863 -47.051968 -637.88824
-14.279118 -46.460255 -636.82013
-4.8578863 -46.682899 -637.64044
-31.45484 -45.850998 -637.18396
1.0670478 -43.650982 -636.43054
68.926132 -43.296146 -637.06708
-34.854767 -41.180916 -637.11621
-35.774876 -40.250858 -635.94067
66.474396 -38.870995 -637.1665
60.188107 -34.244568 -637.82172
-46.696026 -34.526588 -638.20081
-43.09782 -34.065086 -637.21008
-42.206253 -34.323071 -638.28558
53.772964 -29.343437 -637.10461
35.981251 -25.888744 -638.09564
22.787031 -113.95278 -638.1344
31.899277 -113.70971 -637.04272
3.9190416 -101.78584 -634.94934
41.858284 -100.76687 -636.11261
4.174921 -100.81404 -637.36737
-41.469105 -98.4655 -637.01373
-3.056211 -94.297821 -637.62018
-8.7485933 -93.408386 -636.87781
-45.63752 -92.32103 -637.94849
-12.819395 -90.950096 -637.68402
44.684864 -90.046082 -635.61017
-18.182133 -87.445412 -637.39838
-46.019363 -87.791298 -635.97302
-23.39315 -86.060837 -636.80804
-26.71003 -85.026543 -636.5033
-46.222214 -79.328842 -635.92035
49.296349 -76.744995 -638.50299
50.787457 -75.000481 -637.13525
52.109138 -72.689255 -636.25964
54.338737 -65.927711 -636.15076
57.068089 -62.981697 -636.06799
-46.763123 -61.658543 -637.13049
60.93116 -56.738392 -637.14453
62.676815 -55.478508 -636.67139
-29.638653 -50.954636 -636.1272
-30.838877 -49.15147 -636.91693
-16.112217 -47.25795 -636.85541
-3.4986174 -48.052212 -637.03888
-3.1735721 -48.226547 -637.35663
-31.221643 -47.225403 -636.08624
-47.203106 -44.719276 -636.6908
-3.8172841 -46.291935 -636.27637
69.081924 -45.418892 -636.95825
-32.059437 -44.101131 -636.961
-6.6195116 -44.364048 -636.92535
-9.3730574 -43.031532 -636.93268
-33.034935 -42.846027 -637.12811
-8.819911 -42.071815 -636.22473
2.8200166 -41.859234 -636.37238
67.581238 -41.00515 -637.33966
-38.597935 -37.215458 -635.33984
8.8024149 -36.498138 -636.48584
63.990589 -36.019306 -636.93604
-39.12587 -35.608772 -635.87079
-45.5742 -34.369514 -637.10785
57.214569 -31.370934 -637.17432
16.325991 -30.266251 -635.76318
45.710266 -26.291906 -637.02087
32.763496 -116.72068 -636.06427
25.380047 -114.93291 -637.23615
32.422619 -114.39342 -636.81757
38.896801 -112.47856 -636.34216
17.846695 -110.35607 -636.49164
13.337914 -107.36457 -636.29187
40.096256 -107.23413 -637.07269
41.438061 -104.21485 -636.26794
-45.349621 -98.437866 -636.64935
-45.728977 -97.709808 -636.12158
41.604523 -96.683571 -637.29089
-39.337387 -95.785065 -634.88568
-4.2929325 -95.0019 -635.56281
-4.2107215 -95.025696 -637.3114
-2.9465549 -95.139786 -635.59717
41.848095 -94.641205 -636.98584
-36.450024 -92.453156 -636.0835
-14.122014 -89.840988 -636.07465
44.769333 -88.965218 -637.47815
-21.149822 -86.813324 -636.52808
-19.166948 -87.714226 -636.02252
-25.70034 -85.257599 -637.09833
-46.020782 -82.556076 -636.63098
-46.352165 -76.360092 -636.48285
57.661312 -62.087223 -636.57001
59.605667 -57.939053 -637.64355
-46.925667 -57.438217 -635.64746
65.623993 -53.533203 -636.01074
-26.541838 -52.992908 -637.40155
-22.504301 -51.53595 -637.00677
70.166405 -46.883396 -636.2652
-47.097534 -47.922592 -637.0141
-15.574841 -46.524387 -636.2243
-2.1193352 -46.728321 -636.1012
-12.423257 -44.741806 -636.78986
-6.1931047 -43.589756 -635.99298
-5.2756701 -44.004421 -636.39197
-11.075122 -43.832973 -636.53741
69.912941 -41.854496 -636.44727
-36.645927 -38.856686 -636.99719
66.69413 -37.447323 -636.38098
64.02301 -34.38681 -635.72388
12.959824 -33.057579 -636.87354
61.076508 -32.759979 -636.01208
48.450596 -26.955809 -636.88739
35.250179 -116.20853 -636.06543
32.26672 -116.22603 -636.09845
30.549427 -113.91464 -636.83508
31.419441 -114.47319 -636.10229
22.338272 -113.54711 -635.66174
38.602924 -113.59084 -635.75568
21.833641 -113.01188 -633.97803
19.732077 -111.97011 -637.0379
41.578579 -108.23512 -635.35046
-43.689079 -99.164474 -635.32697
2.3447261 -99.292572 -637.13275
43.792034 -97.140175 -634.76276
-39.785091 -97.31041 -634.74713
-0.52081472 -97.234314 -635.83545
-1.7046454 -95.846153 -635.94397
-2.2725852 -94.914444 -636.82343
-37.656242 -94.41848 -638.20532
43.083424 -93.258728 -636.13519
-35.186493 -91.228783 -636.80164
-45.829659 -89.610062 -636.51611
-12.626754 -90.677422 -635.93414
-15.620142 -89.158165 -635.88861
-32.805653 -88.162468 -636.26233
-31.238914 -86.652763 -637.03253
-30.62166 -85.446365 -635.40198
-24.670017 -85.449745 -634.46399
-28.975664 -85.172974 -637.01556
-27.843399 -84.892532 -636.6629
-46.046921 -84.282524 -637.17407
-46.759846 -68.860092 -634.5675
54.769081 -64.153152 -636.44696
-46.797874 -60.235947 -635.87219
62.045204 -58.235451 -635.35016
-47.025166 -52.297592 -636.48285
67.82782 -49.720184 -636.4845
-30.937305 -49.040154 -635.37897
-17.9149 -47.986465 -636.00201
-13.529222 -45.07621 -635.50378
-11.749017 -43.88895 -635.80035
-10.395681 -42.766201 -635.57123
71.599953 -42.141739 -635.73529
-34.047836 -41.266079 -635.55414
-46.77813 -34.705116 -635.84479
57.87838 -30.026953 -635.13458
20.377272 -27.603607 -634.47882
22.599037 -27.225891 -635.58636
30.626991 -26.033875 -637.34924
32.69286 -25.529497 -636.9173
33.829308 -116.3978 -636.49896
27.080082 -115.11827 -633.45496
26.285967 -114.94257 -637.33466
8.4496727 -104.79022 -635.7439
43.953682 -99.195099 -634.40918
-41.982231 -98.780823 -634.44739
-45.877064 -98.171089 -635.68042
-40.451977 -98.028534 -635.19098
-6.7248802 -94.378029 -635.55676
-5.6634994 -94.389015 -634.81348
42.962318 -94.587532 -635.45251
-7.9025145 -93.379471 -634.81372
-12.095138 -90.884392 -635.22986
-34.06004 -89.430153 -635.02551
-14.554993 -90.057076 -635.17786
-13.144753 -90.696541 -634.7561
-15.747914 -90.066566 -634.69427
46.972633 -87.305656 -635.31763
-21.117323 -87.074036 -635.38287
-46.190414 -85.320442 -634.57501
-28.202162 -84.419762 -634.5387
47.889935 -83.398201 -636.24207
-46.513817 -69.418686 -636.85394
55.442009 -65.435593 -634.59174
60.955292 -59.620701 -635.29431
-47.12384 -53.860092 -634.5766
-26.896786 -51.30658 -634.72266
-25.564062 -51.43998 -634.85992
-28.497766 -51.138672 -635.19415
70.269936 -49.710903 -635.37994
-19.39814 -48.90781 -634.38751
-31.696281 -44.631615 -635.43817
-1.6750401 -45.409313 -634.85101
-4.7432551 -44.296177 -636.33386
72.819809 -44.193264 -635.3537
-32.684944 -42.746799 -635.7005
-33.809097 -41.591022 -635.22235
-7.4871821 -42.029045 -635.65735
-37.876991 -37.872334 -636.31006
6.5029874 -38.622032 -636.32819
70.476624 -39.294971 -635.43823
6.5173869 -37.797424 -634.65332
66.781235 -35.301105 -634.94916
-40.738407 -34.266487 -635.61346
61.12397 -31.362696 -634.487
18.290689 -29.626593 -636.68939
52.695332 -27.817688 -635.50043
25.339977 -26.161673 -635.22217
43.281097 -24.759733 -634.15875
30.775095 -116.06926 -634.38739
36.700222 -115.48095 -635.79199
30.828747 -114.99936 -635.14752
29.060143 -114.54607 -635.83008
29.854582 -114.88933 -634.76965
24.178473 -114.15885 -631.93005
40.658768 -112.26647 -634.43134
19.435328 -111.39471 -635.0119
40.680069 -110.49681 -635.5993
16.846565 -109.54456 -635.68585
15.234594 -108.58578 -635.83759
42.704544 -105.60748 -634.48169
43.058636 -104.07796 -634.29968
42.710838 -102.25095 -634.91602
-2.2015095 -95.990875 -634.25891
-38.795521 -95.171593 -635.26611
-3.9126954 -95.135025 -634.8468
-37.817173 -94.120476 -634.24188
43.718937 -94.085182 -634.3504
-10.317181 -91.62442 -634.87518
-9.6603222 -92.417175 -635.4209
44.72319 -90.661682 -635.14026
46.39143 -89.764786 -634.1084
-17.51914 -88.689911 -635.48083
-18.638203 -88.234612 -635.04626
-31.494579 -85.753334 -634.34265
-23.321383 -86.190193 -635.12866
-29.611071 -84.704628 -634.89337
49.655746 -80.027679 -635.23401
54.53764 -66.99617 -634.73853
-46.87236 -64.516678 -634.66614
-46.834015 -62.615746 -635.35754
58.493446 -61.998051 -635.83588
-23.763651 -51.306858 -635.07239
-22.850283 -50.652023 -633.95465
-47.19294 -49.203842 -635.67407
-15.304104 -45.963905 -635.20819
73.146736 -46.388115 -635.07104
-2.6115413 -46.802727 -635.82477
-2.7674415 -44.880352 -634.2793
-31.702911 -45.576019 -634.41089
75.61515 -44.289097 -634.0802
0.9288761 -42.872665 -634.62036
74.652893 -43.058002 -634.36047
-8.5221386 -41.256985 -635.05957
72.282623 -40.481304 -634.95514
-34.90654 -40.755112 -634.638
-36.850327 -39.148853 -634.62366
-47.33979 -39.497421 -636.73651
69.080048 -36.638859 -634.66687
-47.744507 -36.247948 -634.22601
-39.679413 -34.866131 -636.00073
-47.173069 -35.043224 -634.58881
-43.855648 -33.992191 -634.92682
10.052062 -34.567123 -634.56238
102.99008 -30.032335 -634.63794
101.9826 -28.850555 -634.82568
103.41312 -28.430008 -634.8645
103.94979 -26.648346 -634.87952
102.35078 -26.44138 -634.98914
101.66513 -26.09292 -634.60223
46.748146 -25.798027 -635.41925
103.2159 -25.11935 -635.10693
102.11617 -25.117672 -634.82843
103.78357 -24.484344 -634.83881
42.341148 -25.216656 -635.77118
102.99323 -23.924747 -634.79138
31.621861 -117.2051 -634.53839
28.48838 -114.9769 -634.18481
17.747179 -110.33624 -634.3371
-45.273308 -98.908112 -635.27368
0.91581702 -98.931824 -633.82037
-46.004456 -97.014618 -633.7782
-3.7001879 -95.795494 -633.42865
-6.7430773 -93.661308 -634.23761
-8.5727005 -92.226822 -633.98145
-12.599213 -91.06411 -634.44238
-11.064582 -91.277458 -634.64392
44.627159 -92.320572 -634.85895
-16.431524 -89.944603 -634.13757
46.634792 -88.32859 -634.9314
-18.722519 -88.265099 -633.47638
-46.202988 -87.307457 -633.92426
-20.389187 -87.264519 -633.94934
-25.805708 -84.874817 -633.92914
-46.16703 -83.198128 -635.04047
51.646896 -75.044731 -634.98071
52.890739 -71.958481 -634.60413
-27.908012 -51.009583 -634.00537
-29.161318 -50.706444 -634.4093
-21.255638 -50.212494 -634.88574
-17.562748 -47.529488 -634.43622
72.437653 -47.908867 -635.06531
-31.583923 -46.060566 -634.92407
-13.746608 -44.99865 -634.56879
-2.3094761 -44.828999 -633.91589
-0.4751091 -44.963947 -635.87219
-32.297943 -44.556961 -633.69037
-3.2627215 -44.556767 -634.53955
-47.417648 -42.860092 -635.21033
-4.1089702 -43.178242 -634.53687
-33.753677 -42.745274 -634.27557
-4.7045083 -42.914787 -634.72302
-9.4966993 -41.586811 -634.83813
4.6858535 -39.803879 -635.4054
-47.719009 -39.671021 -632.99023
-38.327248 -37.982723 -634.26068
-47.583538 -35.487297 -634.87634
102.83111 -31.825659 -634.19141
13.967848 -31.09506 -634.2359
101.87089 -30.249674 -634.62915
104.80125 -27.746401 -634.14404
101.17902 -27.662392 -634.26318
105.1381 -26.430164 -634.04834
31.771339 -24.472088 -634.24481
102.1576 -23.994928 -633.9881
103.88779 -23.693405 -634.30365
32.844387 -117.72234 -634.24323
29.984808 -115.43672 -633.89246
25.324509 -114.84211 -634.4093
39.909653 -114.03513 -633.35461
43.00333 -108.20944 -633.57672
4.9352818 -103.35604 -633.06598
44.790306 -101.81452 -633.47015
-44.501755 -99.141182 -633.16058
-46.131092 -97.978737 -632.38953
-38.882523 -95.241562 -633.48297
-5.2788444 -94.534294 -633.8432
-45.959858 -92.57048 -634.74683
-7.0528455 -93.300079 -633.76117
44.293083 -93.377357 -633.70392
45.182961 -92.380959 -633.68567
-9.4431248 -91.872864 -634.05603
-35.468193 -90.649109 -633.55334
-13.940165 -91.690025 -633.93207
-10.985662 -91.535698 -633.67932
-46.325493 -81.360092 -634.01062
50.049789 -80.959808 -633.34064
-46.543358 -76.732964 -634.17456
55.327271 -66.124298 -633.92584
56.367699 -64.051659 -634.6861
63.922615 -56.656292 -635.18109
67.9245 -54.087868 -634.4549
69.462357 -53.340431 -634.18866
-26.298168 -51.142422 -633.71765
-24.55583 -51.036781 -633.89642
-30.232496 -50.151386 -634.45264
-20.705568 -49.797989 -633.43622
-31.549559 -47.857616 -634.33289
-18.959023 -48.684795 -633.6781
-16.537874 -47.092617 -633.50677
-31.9123 -46.473473 -633.18152
-15.577091 -46.194248 -634.02307
75.042496 -45.234619 -634.37335
-47.450413 -45.860092 -634.28406
-1.8375579 -44.580494 -633.43042
-0.94700933 -44.062275 -633.19263
-35.234924 -41.542175 -633.59149
-5.7822323 -42.391232 -634.27081
-4.9101729 -42.0527 -633.27124
-8.5642633 -41.017727 -634.03198
-7.5240912 -41.335552 -634.64893
2.8470871 -40.967854 -634.46881
-39.27356 -37.18121 -633.38739
-44.588863 -34.442139 -633.35828
-40.290997 -34.738266 -634.09546
-41.203541 -34.401829 -633.37482
101.65686 -34.050468 -633.81042
83.558708 -32.624748 -633.76929
83.222153 -31.435188 -633.8515
100.82705 -31.703573 -634.11609
101.11738 -29.980127 -634.38953
104.15697 -29.846434 -634.15607
52.783695 -26.951458 -633.54974
50.16917 -26.584019 -634.9375
104.93391 -25.329016 -634.19873
101.47997 -25.112253 -633.99365
39.920597 -24.247116 -633.73712
102.95202 -23.320854 -633.94086
31.884474 -117.92943 -632.53552
33.999512 -117.74104 -633.95544
30.535667 -116.72116 -633.41028
38.127556 -115.29482 -634.07648
42.598782 -109.92427 -633.2583
15.527488 -109.8799 -632.46082
43.99342 -108.27374 -632.97638
44.737129 -106.92861 -633.02631
45.173607 -105.89537 -632.96838
6.5766206 -104.56184 -633.09155
43.504669 -105.15189 -633.83374
3.1484835 -101.67034 -633.14343
45.023022 -98.678711 -633.27924
-45.890511 -98.42926 -634.29858
-45.611012 -98.800735 -632.89539
-41.075768 -98.441399 -633.8891
-2.5578678 -96.200798 -632.7865
-4.4417119 -95.674225 -632.96985
-6.5804877 -93.781494 -633.16711
-36.971287 -93.129616 -633.12585
-12.937455 -92.17643 -633.72046
-36.393951 -91.965393 -633.92328
-9.5974073 -92.282257 -632.79169
-14.333921 -91.833336 -633.26508
46.268177 -90.955177 -633.53918
47.392097 -89.585632 -632.5105
-46.407227 -86.826752 -632.64075
-31.223419 -85.271645 -633.53033
-46.747066 -85.207947 -632.70679
-30.250683 -84.468346 -633.59253
-26.185949 -84.311249 -632.71576
-29.049849 -84.036278 -633.54742
51.798172 -76.416962 -632.81165
-46.686142 -73.360092 -633.6391
-46.751457 -66.942543 -635.33521
58.321636 -63.809193 -632.61194
59.359921 -62.737255 -633.82196
62.554741 -59.977196 -633.45221
63.784271 -58.881832 -633.48578
67.609856 -56.301559 -633.20068
-47.365124 -51.344841 -633.30627
72.860886 -50.196064 -634.19928
-30.898268 -49.859913 -632.94635
-22.612801 -50.553852 -633.2113
-47.522781 -48.623001 -632.55786
75.266006 -47.967087 -633.96094
77.644974 -45.812721 -633.42438
-32.022457 -45.864044 -633.33185
-12.649388 -44.375416 -634.1297
-33.667118 -43.750183 -633.22711
77.554451 -43.860382 -633.15045
-8.2045937 -40.878124 -631.59424
-7.179873 -41.014618 -633.18677
84.935219 -41.60305 -633.24176
75.123329 -40.389641 -633.35358
-35.892788 -40.082348 -633.84369
84.063187 -40.142578 -633.57709
84.843224 -38.976246 -633.66046
3.9185283 -39.22691 -632.17462
82.983719 -39.246361 -633.2583
83.951729 -38.488277 -633.73053
-38.845379 -37.986969 -633.11279
85.044785 -38.014858 -633.43036
86.377579 -38.507233 -633.2298
-47.458561 -35.481369 -633.513
-39.87431 -35.704548 -633.07855
101.9655 -35.634369 -633.04541
101.02493 -35.521328 -633.38153
102.28059 -34.110485 -633.64612
10.326179 -32.984352 -630.84399
69.055183 -34.808384 -633.23145
83.738945 -33.693943 -633.24652
100.35201 -33.799713 -633.72699
82.308823 -34.299343 -633.51862
82.028648 -33.106205 -633.69025
85.944412 -33.06181 -633.09338
64.951691 -32.832432 -633.68146
86.922989 -32.446095 -633.2962
81.909676 -31.565918 -633.41022
85.154594 -31.286383 -633.57733
104.58104 -31.529697 -633.06873
86.647766 -31.010719 -633.13892
82.307472 -30.584385 -633.20312
83.329964 -30.037216 -633.36633
99.819725 -30.885916 -633.35162
84.70504 -30.124804 -633.35303
56.099911 -28.614948 -634.27039
59.801903 -29.734131 -633.14734
99.191742 -29.50934 -632.4054
100.41766 -28.113337 -633.57819
106.0698 -27.742872 -632.79425
27.73 -24.765703 -633.40643
104.97569 -24.760576 -633.44452
34.791798 -24.405493 -634.50586
104.2644 -23.89222 -633.086
102.67418 -23.449421 -632.90546
33.088169 -118.33611 -632.47064
30.718143 -117.18211 -632.81305
28.86902 -115.89195 -632.23749
36.245789 -117.16012 -633.20917
28.08532 -115.45504 -632.47278
19.805586 -111.61156 -633.45862
17.306175 -111.10629 -631.17456
46.361294 -109.96791 -632.83215
10.056909 -106.20926 -634.69464
45.734215 -101.40649 -632.84711
-43.531918 -99.177986 -633.30792
44.315247 -96.749313 -633.94946
-7.6080418 -93.429962 -632.27032
-13.148779 -92.455826 -633.37958
-11.188152 -93.478271 -632.61456
-10.650832 -91.969116 -633.25629
-8.224575 -92.606331 -632.84528
-35.880005 -91.016235 -632.34204
-33.781601 -87.860588 -631.87933
-32.606777 -86.823532 -632.77167
-24.147789 -85.063072 -632.80908
48.724854 -84.241577 -633.73053
-29.154499 -84.075844 -632.91571
49.378555 -84.238167 -631.98413
-46.654312 -71.505592 -634.66931
54.063847 -69.035934 -633.78491
54.988075 -67.07373 -632.97974
57.128498 -64.321991 -633.48889
-47.201874 -57.235092 -632.96722
69.371109 -56.110424 -632.46802
-47.429474 -53.92498 -631.73706
72.651077 -52.400143 -633.33313
-27.571537 -51.516075 -632.82501
-24.903217 -51.148823 -633.22064
-24.137917 -51.212315 -632.78699
-29.915525 -50.972137 -632.7666
-21.848259 -50.45929 -632.66077
-19.69013 -49.621075 -632.86639
-13.861506 -45.642456 -633.01562
95.864174 -46.483273 -632.70001
98.129562 -45.487003 -632.64948
95.681595 -43.315956 -633.31299
97.465004 -44.108749 -633.19873
-12.109879 -43.99379 -632.83325
-2.9488475 -43.684338 -633.05817
-47.643562 -42.998058 -632.79517
93.29306 -43.35059 -632.84271
-34.516258 -42.463036 -633.31183
-3.7905836 -42.822346 -633.37317
-10.935639 -42.983501 -633.60852
86.481041 -42.446201 -633.01215
-9.4518661 -41.491722 -633.43665
85.809654 -41.175819 -633.22412
94.317505 -41.853615 -633.04108
76.745087 -41.330288 -632.92145
91.689034 -42.641792 -632.7558
93.228035 -41.258556 -632.96198
95.378311 -39.792534 -632.78064
97.001541 -41.563877 -633.44073
83.042168 -40.216633 -633.07581
93.644951 -39.627754 -632.78479
87.486885 -40.466991 -632.55219
97.902794 -38.752785 -632.77124
-37.358444 -38.8013 -632.94672
73.258163 -38.974277 -633.70239
98.522026 -39.968967 -633.10101
88.328346 -38.130829 -632.77808
82.827629 -37.935566 -632.73083
83.636589 -37.473347 -632.86981
86.803368 -37.822727 -632.99597
71.767731 -36.496861 -632.89716
81.949539 -36.336311 -632.77167
99.838516 -35.490646 -633.25928
82.963097 -36.188828 -632.73364
81.413391 -34.77573 -633.19904
-43.142658 -34.358482 -632.94501
99.392799 -33.494358 -633.17719
80.783386 -33.7533 -632.88885
88.392387 -32.204178 -632.77612
81.106705 -31.875513 -632.64069
64.350677 -31.11895 -631.8111
85.891228 -30.016008 -632.8172
16.093336 -29.285118 -632.93146
106.26733 -28.736547 -632.36853
99.508629 -28.598419 -632.4071
20.665627 -26.267176 -631.01251
100.62384 -26.848974 -633.38757
105.83002 -26.375694 -632.93219
22.60121 -26.13682 -632.98932
49.368809 -25.755453 -633.10193
105.20232 -25.243725 -632.34656
48.312462 -25.095844 -631.62213
101.95837 -24.115107 -632.54803
103.43009 -23.325842 -632.94513
34.112183 -118.45004 -631.98706
35.359863 -118.04646 -632.21851
39.557301 -115.46855 -631.56244
46.474735 -114.4784 -632.2359
40.768093 -114.05719 -631.7735
47.031834 -113.76852 -632.27332
41.909554 -111.89061 -632.58038
46.219753 -112.71182 -632.42932
43.9002 -109.57721 -632.66046
46.7924 -108.81123 -632.63477
47.439011 -111.21506 -632.46979
11.65519 -108.3054 -631.32281
8.3154459 -106.01766 -632.19879
45.834995 -104.71522 -632.55151
46.34547 -103.26749 -632.53455
-0.92919087 -97.609207 -632.11072
46.193123 -98.536179 -631.59125
45.280827 -94.11364 -631.40228
-6.4964523 -94.325386 -632.55267
44.571201 -94.173996 -632.74579
-46.208271 -94.219467 -632.28845
-10.04361 -93.87709 -632.07623
-15.859461 -90.69281 -632.18323
-34.886272 -89.588654 -632.17328
-17.009815 -89.56794 -632.8324
-21.606758 -86.153175 -632.35687
48.193573 -86.707565 -633.04651
-23.17205 -85.455345 -631.99597
-27.022615 -84.354759 -632.14258
-25.143824 -84.64312 -632.09192
-46.462303 -84.031624 -633.38684
-46.554981 -79.128235 -632.26459
51.077736 -78.673813 -632.55457
-46.99548 -68.851517 -632.05566
57.639618 -65.383255 -632.16394
-47.192307 -63.172043 -632.22107
62.33712 -61.6693 -631.51385
61.585152 -61.006653 -633.34167
66.055099 -58.273891 -632.44324
73.46859 -54.051025 -632.07996
-29.073614 -51.392883 -632.70801
-26.562584 -51.794151 -631.84119
-26.069868 -51.694572 -632.35742
-23.552313 -51.82563 -631.89191
75.256668 -51.199245 -632.88147
78.147942 -50.346691 -632.37842
-18.94445 -49.867165 -632.04895
-16.70702 -48.296253 -632.03906
79.57756 -47.768345 -632.74164
-31.645012 -46.959305 -632.12689
80.357452 -46.449566 -632.59192
-32.048893 -45.788288 -632.06476
82.382362 -46.002285 -631.97266
94.552628 -44.99902 -632.92389
98.891647 -43.900593 -632.79633
-33.949738 -43.980759 -631.71277
-1.5147676 -44.019981 -631.84467
91.323784 -44.170567 -632.52808
88.591209 -43.359783 -632.1936
-35.391148 -41.785789 -632.25708
88.790199 -42.178841 -632.54309
101.19778 -42.40255 -631.89606
-4.9656115 -41.957439 -631.80334
90.180511 -42.782097 -632.36169
91.532349 -41.218895 -632.51062
99.160866 -41.477478 -633.07886
89.877831 -40.845078 -632.35492
-36.668892 -39.398258 -633.04352
87.905556 -39.369118 -632.71954
90.289909 -38.797653 -632.50574
91.9384 -38.92984 -632.31982
100.39549 -39.166424 -632.33673
89.410385 -39.120674 -632.69269
93.858521 -38.433846 -632.05829
77.078514 -39.7514 -632.06995
100.17752 -38.28896 -632.32886
98.293068 -37.638725 -632.62677
99.620323 -37.098339 -632.7514
100.97282 -37.522896 -632.30481
84.232719 -36.821293 -632.52814
87.419159 -36.930672 -631.96832
8.1237383 -35.822948 -633.19232
96.647026 -36.788723 -632.01831
98.791382 -35.937115 -632.83667
-47.860909 -36.355049 -631.84631
84.113235 -34.986202 -632.52393
-46.510403 -35.280216 -632.90759
80.806282 -35.795765 -632.32654
87.48262 -34.785706 -632.31018
98.182251 -35.249695 -632.46008
88.27211 -33.34198 -632.81836
67.807808 -32.899998 -631.96576
80.272812 -33.457531 -632.13214
90.342995 -33.762272 -632.09796
90.134041 -33.022694 -631.95062
103.72501 -33.645283 -632.82977
12.418148 -31.865128 -633.23047
98.312027 -31.142939 -631.82068
87.414284 -30.789495 -632.57678
18.615234 -27.970695 -633.31403
106.06847 -27.068514 -631.93811
105.66847 -26.11689 -632.00891
23.312771 -25.184875 -630.96973
45.700344 -24.850592 -633.10895
101.95075 -24.252005 -631.60944
36.746071 -24.040161 -633.38159
47.010036 -120.27163 -631.64099
48.027103 -116.86222 -632.14166
48.52071 -118.05555 -631.76599
46.221214 -118.19504 -631.68665
47.300598 -116.39989 -632.18677
48.93956 -115.78667 -631.82141
47.964447 -115.03841 -632.2724
23.377569 -113.82442 -630.56476
42.766815 -111.07306 -632.4303
43.562016 -112.01257 -631.953
48.364639 -108.25174 -631.35028
47.793472 -106.7605 -631.67139
48.308838 -104.84714 -631.80475
0.48265606 -99.681725 -629.95203
-41.391483 -98.589638 -630.44617
-5.9743381 -96.56189 -631.81561
-4.9020438 -96.266083 -632.22552
-3.9540346 -96.427383 -631.90723
-6.6122508 -96.207703 -631.69586
-38.942112 -95.539726 -631.95453
-7.9387579 -94.159157 -631.63129
-8.5086622 -93.088226 -632.19458
-14.094706 -92.40184 -632.04645
45.000572 -93.217468 -631.94421
-36.173355 -92.037811 -632.60852
46.419109 -91.262848 -632.60443
-19.451303 -87.177246 -631.25745
-46.846195 -86.840141 -630.62427
-30.791397 -85.198059 -632.19897
-28.586504 -84.81855 -631.28577
53.12011 -72.801819 -632.4303
-46.938988 -71.750717 -631.9574
55.103085 -68.362282 -630.19519
55.685577 -66.815506 -631.19183
64.186172 -60.111515 -631.78198
-29.020098 -51.300358 -631.62225
-20.524427 -50.816158 -631.78461
81.851105 -49.991741 -631.47711
95.079422 -48.696751 -631.86536
93.945145 -47.673439 -632.18585
82.019424 -47.904202 -631.90076
97.656143 -47.683945 -631.9328
-15.136844 -47.059673 -631.93823
90.485382 -46.587456 -631.82788
92.527519 -45.50769 -632.38281
99.119652 -46.817375 -631.64886
82.213074 -44.521694 -631.86102
89.119675 -44.469742 -631.82977
-11.085876 -43.182049 -631.21838
81.582474 -44.225315 -632.00708
89.316757 -43.571201 -632.10248
83.873779 -43.006157 -631.94116
84.766785 -43.805035 -631.79578
-3.326813 -43.089058 -631.99677
-47.956268 -40.360092 -630.90576
83.698082 -41.607731 -632.76935
82.225235 -41.559452 -631.59534
-6.5475717 -41.063892 -631.86652
79.193298 -43.013489 -632.3822
-36.603004 -40.492535 -631.96222
102.29042 -38.892891 -631.05225
-48.03236 -37.24712 -631.44
-39.356846 -38.069035 -631.94739
81.823143 -38.100765 -632.14136
95.771027 -38.20105 -632.09473
73.856285 -37.757687 -632.53314
88.2976 -35.816509 -632.10828
89.012398 -37.177597 -631.93103
91.371414 -37.614681 -631.85242
85.964264 -36.162025 -631.84021
89.782341 -35.768543 -631.90363
80.099457 -34.847004 -631.86688
85.424843 -35.412788 -631.90485
86.138893 -34.97879 -631.95654
-44.260494 -34.961784 -632.08386
85.297127 -34.871807 -632.11072
90.325745 -34.717331 -632.09711
89.085098 -31.923416 -632.14697
85.917801 -29.630381 -632.09125
106.61453 -29.060692 -631.69257
106.58916 -28.484268 -631.34192
99.825516 -27.274527 -631.28577
100.88137 -25.972773 -632.96985
103.78345 -23.952869 -632.07178
29.21834 -24.510843 -633.46777
38.44286 -23.504353 -631.23285
47.832333 -120.05005 -631.54956
49.427685 -117.92245 -631.14929
28.053343 -115.73431 -630.99023
45.388329 -116.04884 -631.76404
26.550314 -115.1053 -631.99402
41.58374 -114.24182 -631.28876
43.410534 -113.7404 -631.51672
42.023365 -113.03297 -631.69836
21.284697 -112.54642 -632.39789
48.134426 -113.21609 -631.87372
19.555304 -111.78181 -631.97198
48.876419 -111.59194 -631.3808
48.439091 -109.80531 -631.37994
49.085209 -109.18643 -630.81061
49.934044 -106.50241 -631.2876
49.95665 -105.46681 -631.07355
3.6350639 -102.84117 -630.58832
49.03257 -103.69393 -631.01196
47.434456 -102.50558 -631.80847
46.530293 -100.27164 -631.77264
-46.310795 -96.705284 -631.50299
-39.815838 -97.592361 -633.05664
-6.1157894 -97.012505 -631.14404
-5.0920434 -96.878906 -631.74927
-7.3652706 -96.54306 -630.83795
-8.145215 -95.022385 -631.19586
-37.584427 -93.981453 -631.40887
-9.8611765 -94.654327 -630.7027
-9.3139896 -94.233459 -631.48389
-11.18343 -94.278824 -630.41663
-36.283142 -93.308723 -631.4071
-13.178956 -93.543556 -630.99121
-35.949471 -91.9785 -631.5058
-15.098688 -91.680519 -630.71838
-46.415157 -88.437256 -631.54004
-16.758617 -89.469315 -630.94409
-34.25547 -88.376328 -631.10077
-17.538919 -88.632492 -631.12866
-32.13208 -86.072662 -631.38513
-31.632486 -85.802353 -631.63965
-21.529991 -86.108078 -631.64697
-25.688414 -85.091675 -630.91449
-26.959702 -84.834778 -631.02863
-46.484608 -82.485092 -632.14368
50.348793 -82.027657 -631.17761
-47.177803 -67.485092 -630.48285
59.332092 -64.652725 -630.54547
-47.117496 -61.531967 -633.12378
72.249077 -55.217396 -631.81171
75.228889 -54.976223 -630.6618
75.752045 -52.824997 -631.88617
78.779755 -52.746212 -630.97528
-25.282513 -51.556732 -630.67316
-22.645763 -51.851501 -631.24139
-19.996834 -50.904137 -631.08698
-18.876726 -50.227139 -630.77246
-47.725117 -48.180405 -630.56348
93.493744 -49.049076 -631.49542
84.211617 -48.761826 -631.22009
91.044693 -47.869129 -631.17834
91.984009 -46.952473 -631.93799
84.388519 -46.002377 -631.66467
88.931969 -47.970428 -630.88745
88.762833 -46.336842 -631.64136
-32.345062 -45.16362 -631.38153
-12.573073 -44.359734 -630.85754
85.199471 -44.965038 -631.58527
86.523109 -44.282974 -631.77191
83.690338 -43.778122 -631.71057
-2.3327427 -43.897789 -632.01501
81.828041 -42.46701 -631.55499
101.95113 -44.760536 -630.51569
0.84938651 -42.178768 -632.18604
